   11.447697543473900        7.6659518764312100        3.5114232748900802     
   18.265056665010000        3.5426172231818698        3.6746557331183700     
   18.220152898437998        4.4779818206117499        3.4763918644421099     
   17.461546942658501        3.1794991485091999        3.3021651561469301     
   18.283911728826801        3.4585673667124301        6.4339335931526600     
   19.146257678161401        3.1371388965964502        6.6971351172079396     
   18.332613293046698        3.5228842287182900        5.4801394125747702     
   12.223423228707700        7.0323574365393702        6.5703224295252101     
   12.128227614851999        6.1231578617606202        6.8540930557795798     
   12.215656154006201        6.9874150682470999        5.6142096244217301     
   19.796545190716099      -5.13700123929813623E-002   1.3598380632559000     
   20.056645064749301       0.76680901331112905        1.7831145419619101     
   18.845853644638499       1.60080407214743398E-002   1.2710820934564899     
   8.4766284089158699        6.5143386018142797        1.3969222348315999     
   9.0293070669212891        5.7365449947552802        1.4731799938039201     
   8.9631416083524407        7.2002178374464902        1.8542037902245201     
   14.508712478963400        4.1449500184323496        1.4584077698070399     
   15.021621881146300        4.9430278033257000        1.5857955023878001     
   14.444110790224100        4.0503199781659802       0.50809012959866195     
   16.951625593027899      -6.98771444838061223E-002   1.3112143921152399     
   16.659118293737400       0.66669592817105905        1.8479931440248001     
   16.596933096903399      -0.84278660569940000        1.7505730587605901     
   9.8794363891818406        4.1937926622477901        1.4014733887048900     
   9.4090525968803504        3.4526002617121598        1.7830552977732901     
   9.7953115343167099        4.0703583267194396       0.45600058972725599     
   16.033408625633399        6.5204069907467996        1.4207158663593200     
   15.543786939758700        7.1771935702338201        1.9158257872121800     
   15.868803158958499        6.7393383636163202       0.50354307221734296     
   8.4008047258501009        6.3973557582214200        8.7930947137915201     
   8.8232084983525692        5.5430631854538097        8.7037017996998696     
   8.3335278018505896        6.5341032121074099        9.7380845493732906     
   19.729477195208400       8.01215874898344310E-002   8.7458290340898994     
   19.990944793326602      -0.76724405301186305        8.3854986212304592     
   19.765309301211399      -4.11938337051596382E-002   9.6946337920668295     
   14.609659484270900        4.0982192113053699        8.8306037473182197     
   14.948599945839099        3.3049702428552901        8.4157456058230995     
   14.682564848507100        3.9278294966900602        9.7696905340524900     
   9.9056993697949007        4.1305377503579797        8.8719071658601401     
   9.5030936338750092        3.4510669198480799        8.3311115927545600     
   10.726063439868700        4.3384689169951702        8.4246943949414508     
   17.034851352478299       0.10849880403416801        8.8600945062370595     
   17.982840191615601       5.13054925782739785E-002   8.7406042304990699     
   16.912675405349201       0.11650283530283700        9.8094315451366008     
   15.875983420142500        6.4846407447248398        8.6550193631991306     
   16.664190610746999        6.3396383126707203        8.1316308274270295     
   15.427920059590900        5.6387868993201398        8.6534905907033508     
   18.451970064754800        7.5615520731534902        5.2078850469847904     
   19.273001803562799        8.0527504411950002        5.1785101069268302     
   18.477818933799899        7.0041708270532101        4.4301384157064501     
   14.676204405823301        1.5039386576209499        5.1028503703421197     
   13.838118938892000        1.9657185603721701        5.1274249819061701     
   15.175764589341400        1.8744129305241399        5.8304630943651601     
   22.185010633565401        1.3145535965305799        5.0704106743939397     
   22.216118861293999       0.36963484164847199        5.2200524628075904     
   21.686200518552901        1.4127999631740900        4.2593817226280102     
   12.247523642207501        2.8689853575819599        5.1286805685479600     
   12.210063841476700        3.3819066034401999        4.3213761656883900     
   11.429616435616500        2.3717770282773598        5.1352774372474697     
   15.805853814184800        9.1597604752905095        5.0594179112606597     
   14.944332209974300        9.5533144168467299        5.1977206970754803     
   15.938810652755899        8.5986341155715493        5.8234149842299896     
   8.5233678245618893        9.2998250193612400        5.0282704510945804     
   9.0471950315669094        9.1473548674482306        5.8147752190247797     
   8.3532156543371094        10.241772578048201        5.0321273477039803     
 -7.62837106952738431E-002   16.775457251687701        2.7564332394902502     
 -3.05723905784261001E-002   15.870664560719700        3.0654518499074999     
 -0.87987718651293401        16.811553605230099        2.2376207310787501     
   22.121941278636399        12.671546263538900        2.9173275869738200     
   22.913848072900201        13.139480762489001        3.1821912762392901     
   21.620914465133801        13.313386711556101        2.4140932365559000     
   2.3103113592967399        12.823996561088601        2.8982421483218901     
   2.0446439519620201        12.050445110956900        2.4009788149871998     
   2.7977129632235900        12.474124110301400        3.6440710728546701     
   18.385756107515402        15.165097068706499        2.7483196232919100     
   18.332402929685301        16.074217199932601        3.0430837076288699     
   18.410261025712700        14.651982306752600        3.5559981422888698     
   20.621094371015701        18.962419762051098        2.8565909320310001     
   20.318295233028799        19.731726077876999        2.3741882843757600     
   19.818814636307600        18.543013209769601        3.1675205240289301     
   16.052907610893701        19.028089644636601        2.7489555468007598     
   15.490485394925299        18.389950086798500        2.3099897215848899     
   15.551678624391700        19.301286657049399        3.5173075074926001     
   20.659920011068500        19.097020012039199        7.3267615947326101     
   19.854767012123300        18.710152213650300        6.9828229448846804     
   21.159389405531201        19.343411149440598        6.5482671686734797     
   18.416249405649801        15.109619000023001        7.3078441032710604     
   19.185744786836398        15.121609137720100        7.8770232797440700     
   18.643872922877001        14.495890421695700        6.6094483654908300     
   15.950591768727399        18.887072572574802        7.2983940685751501     
   16.154337388817300        19.684594159982300        7.7869417938928303     
   15.435596140812200        19.188965578853200        6.5501481491152598     
   22.310302762997100        12.840325512534999        7.4822331904366903     
   21.820215205681802        13.448844257662300        8.0351807132573008     
   22.553614392335000        12.124901513834700        8.0697702472361694     
 -0.11970042469489400        16.939940193906800        7.3174284220783603     
 -0.20497775223516501        17.499778587276499        6.5457156576920497     
  0.68413835842588999        17.238454038069499        7.7428276881732696     
   2.2546149649601399        12.901559491202899        7.3506856998930896     
   1.4972518944286799        13.375887486782400        7.0076901139087600     
   1.8789230729469799        12.156200220152300        7.8192227841611199     
   18.452784358743699        17.703128096631499        3.6921132508847698     
   17.670178527573899        18.154587029356399        3.3759727993732098     
   18.382955974249899        17.741224772756201        4.6460023848973302     
 -8.58233428343074534E-002   14.188036676103600        3.7783112673358099     
  0.72654760182226596        13.770622751854800        3.4918659774093799     
 -4.46757019560143978E-002   14.162424656594901        4.7342834092452097     
  1.93837436839552589E-002   14.036807988840900        6.4614161965809798     
 -0.75009692873463496        13.528218888474100        6.7172842519577296     
 -0.12301854742056600        14.899684337768100        6.8505149423387302     
   18.307289777819900        17.749714601404701        6.3610233755969903     
   18.314059164254601        16.848034163193699        6.6822061938718003     
   17.486014421536499        18.115386151089499        6.6896918208615297     
   1.2955259750061701        10.655724747409099        1.5063509398835300     
  0.36121071684646799        10.765085126064800        1.6833457023773399     
   1.3597599588258300        10.649626358560401       0.55132808938407596     
   14.505626703014100        17.076349593222599        1.3194277873725000     
   14.908172847153599        16.217565257360501        1.4485707558850200     
   14.455178640938099        17.177252626232299       0.36889877100202700     
   20.804749598050400        14.727226968787900        1.5485270634090600     
   19.972051713370401        14.809862258147200        2.0133038719979601     
   21.222709255618501        15.582226390799599        1.6510821851979101     
   23.109140700449601        10.530672462153200        1.3002886019094100     
   22.765524682628200        11.336284101659700        1.6864877197077399     
   23.048501996738899        10.672532948280001       0.35560326271536302     
   15.987876508608700        14.748375176162201        1.5006514189025799     
   16.904794146701100        14.862059441626700        1.7507909254601399     
   16.007417049991801        14.668458010316300       0.54699359040977602     
   22.113174400083800        17.146163615825699        1.4695481054555699     
   21.936094923553799        17.306326282862500       0.54260548636874495     
   21.679010018969699        17.867511826668601        1.9249489057244999     
   14.610658263083099        17.045880547658999        8.8456263306706298     
   15.162761387573200        17.646330926596900        8.3447537696717191     
   15.094625740082300        16.220045827241499        8.8477085794468593     
   1.4367341665668900        10.798339897012200        8.7835025851080708     
   1.7413621853473500        9.9319237677015302        8.5137680840813008     
   1.4486747473561901        10.769829324340000        9.7402033793882392     
   20.799179786887599        14.738155600012201        8.7339975261328906     
   21.260697001110898        15.564341317699100        8.5902934521969598     
   20.756080743723800        14.649799386594200        9.6861359047464095     
   16.025774203854500        14.690955956791100        8.7893476911286292     
   16.828148597864701        14.788614419864400        8.2766196965477707     
   15.512224686589500        14.040862856325200        8.3098920685277005     
   23.275326156017702        10.639394770960701        8.7637439222936209     
   23.036858895453999        9.8583996315736595        8.2643324707899293     
   24.232095041918900        10.656259006400200        8.7404901799193997     
   22.122724964453901        17.181422551938599        8.6976961745376400     
   21.551638570977602        17.742679792819601        8.1732131140438504     
   22.957341280513099        17.183413288086800        8.2290348021829605     
 -9.38301373383301079E-002   18.256768428796299        5.0620285593236698     
 -0.24735187159624800        18.166019632514601        4.1215884638981999     
  0.74132976138657902        17.814000863386699        5.2126826883179902     
   20.753779922667601        11.907226863549299        5.1460135958586202     
   21.194737321192200        12.153794478110999        4.3329989440005896     
   21.333433710183801        12.223648981250800        5.8389135670287100     
   3.7264404410340002        12.019539977488501        5.0366605274390501     
   3.6083765121933400        11.076778859206399        5.1528251630310500     
   3.2768658519623299        12.411735825403600        5.7851903837167900     
   18.399729838892600        13.585851422765700        4.9756831551343597     
   17.632590007846598        13.017231126233000        5.0420102083913099     
   19.141878346687601        12.983137652924100        4.9289547481311304     
   22.001883201908701        19.687020913851001        5.1529639437255099     
   22.793742192463199        19.155288745644700        5.2332887865364999     
   21.588229656492501        19.381085927441202        4.3457921104366104     
   14.920100796771800        19.939341446903899        4.9505264985535904     
   14.160915599331901        20.522210707745700        4.9620634285526499     
   15.674805168007801        20.528003189726999        4.9619503583978499     
   12.258502140051601        16.823333267825500        2.9210004463284100     
   13.031463042791900        16.834794190370701        2.3565255309519801     
   11.534526866959499        17.060289923499901        2.3413943841769300     
   9.9719470860908199        12.873161497490900        2.8149530390379600     
   10.696726441443600        13.434349594657000        3.0906243027806899     
   9.5700043724748696        12.581045800009701        3.6330864720769300     
   14.486870307480601        12.918226234076300        2.8221532382876200     
   15.054082544300600        13.531369491578101        2.3546519396993300     
   15.010005813011601        12.629918995376901        3.5701104689942000     
   6.1597917312513104        15.155185101791300        2.7090470074617401     
   6.1073410264154200        16.072715279438299        2.9766645268236802     
   6.1953709238761503        14.666942015259099        3.5315946653549899     
   8.2340826220692307        18.964534829846102        2.8702774924567200     
   8.7824215035467503        18.397138926275900        2.3284120112976399     
   8.8030396608854193        19.228806226625998        3.5932438518577099     
   3.8645009488769202        19.049145002086998        2.7712573236088298     
   4.6212586034257503        18.591099011568801        3.1369669937735298     
   3.3627189345330000        18.366263380648199        2.3261513349027898     
   8.3327793796723295        19.095398850667699        7.4105618696523399     
   7.5762137897387403        18.592550952474401        7.1089257653628097     
   8.8074040047868305        19.318462717294999        6.6098085888971303     
   6.0807041346400101        14.943779792768900        7.4607583643407800     
   6.8467652914436599        14.860501415444800        8.0286024062280905     
   5.3394754251911403        14.719278411258200        8.0232625598705205     
   3.9621676512519599        19.029266263092300        7.4449127966214403     
   4.1565978053992803        19.809198900785098        7.9646568065145198     
   3.4465126024304200        19.354918530050099        6.7071578836252197     
   10.004103240511000        12.801173824787501        7.4436617990764304     
   10.445436059022100        12.075826863246400        7.8856221691188404     
   10.715507809186100        13.337087427390300        7.0930452133113997     
   12.273991160025000        16.716094945968798        7.3361153953268001     
   13.052823749402600        16.873955759509101        7.8697178702758501     
   11.541308013564100        16.950979392767699        7.9055331185705704     
   14.619824933073399        12.999099902775800        7.3695604063033500     
   13.853571065119100        13.460636234855100        7.0288683693904002     
   14.257786266978700        12.251916136077799        7.8458757042263096     
   6.0955758071345096        17.656563170699599        3.6735535752353701     
   6.8217989228117597        18.228311216234900        3.4246841341973502     
   6.1001445339069997        17.665607034459502        4.6306999461024301     
   12.217638404532400        14.182812612287901        3.6772287452582901     
   12.239784191875000        15.085061886755600        3.3583437333410502     
   13.024920084420000        13.790743171140001        3.3443478617041502     
   12.446266935485699        14.167500274387100        6.4830327554391598     
   12.377478852922099        15.071923314396701        6.7888415264006303     
   12.427940355647999        14.234905974716300        5.5283849418269497     
   6.1874773179998703        17.679986244693101        6.5469350310653702     
   6.1388702329347202        16.763766449586399        6.8197178720510703     
   5.4039060153916800        18.083460014674799        6.9203741434593598     
   13.714367492132100        10.675877330123100        1.4586236126347201     
   13.869951165394200        9.8906863955598592        1.9835052725295801     
   14.129538082487700        11.381874307761100        1.9540360554233001     
   2.3468510059910801        17.143690770892100        1.3956321553566100     
   1.4907364018791700        16.876099455856899        1.7298394454387300     
   2.8359601485949999        16.325752027884800        1.3062996343530899     
   8.5674774509679708        14.762511461293700        1.3167168652398700     
   7.7488769987775497        14.908360735455799        1.7909036732596999     
   9.0921895832688104        14.219615579756001        1.9050816160753301     
   10.882995592520301        10.725917489383100        1.3565554083606599     
   11.826042881658100        10.888846456379300        1.3752048631375200     
   10.503402670236399        11.457386345547100        1.8434787758571101     
   3.6795784095457500        14.749516925513900        1.3183688280369801     
   3.1951582163486898        14.111365731974200        1.8421359238025301     
   4.4886991336761302        14.897166576992401        1.8080167364375099     
   9.8697253050922207        17.212130491817899        1.4436154046885801     
   9.4015506275062393        16.388705958134501        1.5815151820472000     
   10.096445172358900        17.206461531673298       0.51367035003348505     
   2.2737434262792702        17.154047255766500        8.7660164056071306     
   2.8827602410048101        17.764710639305399        8.3507808202025604     
   2.3194887819162999        17.366175894485501        9.6982935334360008     
   13.693930146379801        10.570411756852600        8.8769004921139505     
   14.098980987842101        9.8071871716416794        8.4650098654176507     
   13.777785815207000        10.408756852561099        9.8166173424066603     
   8.4834891348437296        14.710984511529601        8.7868367173355804     
   8.9006127568099807        13.953757505667200        8.3759267690617492     
   8.5713337000295606        14.552688016062600        9.7267608588971193     
   3.7829704196773100        14.741202546528401        8.8253768272645292     
   3.3192337508554401        14.072823749049199        8.3209465297305201     
   3.2286459481160401        15.518817763524000        8.7600255110947902     
   10.971155003096801        10.614477013206301        8.7661239688690298     
   10.687779714843900        9.8552636188820806        8.2566877040760307     
   11.923865182490800        10.532522254167400        8.8092351222960996     
   9.9373847339228796        17.085662906119499        8.8520155433842405     
   9.3655323514456796        17.677516665263099        8.3632151542245197     
   9.4824996034769793        16.243636774298199        8.8345985565806995     
   12.103244619665800        18.388031361256900        5.1519298979735799     
   12.158675059774600        17.841977191593401        5.9361391494507298     
   12.062143621315901        17.763926240451902        4.4273366699348902     
   8.7435309268212595        12.106929070170001        5.0374667032565403     
   9.1098064288764693        12.350821767328901        5.8875199068072099     
   7.9120631475886496        12.578788032903899        4.9901138639994800     
   16.061233319689300        12.029794235984101        5.0277709029750799     
   16.300555238050801        11.103954060278600        4.9856184600875499     
   15.575025190688400        12.114890513952000        5.8478880401996403     
   6.2390561192081000        13.494866897295299        5.0242846211924297     
   5.3764145161940000        13.081407018364800        4.9906359471621702     
   6.2137651163885401        14.039182142241300        5.8112491180382300     
   9.6767444702370806        19.841732671995398        5.0506631978997296     
   9.7543744349430597        20.795546967455799        5.0717278212070296     
   10.578929657618399        19.526298148715600        5.1035289636932104     
   2.4421045766229601        19.884827752662201        5.1678565704258297     
   2.9738027867642498        19.651077608806300        4.4070085411979800     
   2.3625590151140501        20.837588708882802        5.1214787314734904     
   5.8890251064902204        6.2938311601279802        12.875181235909499     
   5.9371337237263999        5.4359098544757902        13.296949459292501     
   5.8768008278758899        6.9177337601064499        13.601010384368299     
   3.9718255717402799        2.1775767338337300        12.903831302824701     
   3.4152287844725802        2.8322658680786899        12.482151336612301     
   3.4764936777127602        1.9024991857766700        13.675330166928900     
   8.4315923150517005        2.1207345994817599        13.091316350113299     
   7.6928186108355803        2.7020785387380801        13.271550859152800     
   9.0367689411149197        2.6543284999896102        12.576272040750000     
   24.497526191756400        4.5176294538169799        12.924425600536100     
   25.313466303780100        4.4106735230325196        12.435514563167599     
   24.588870946597901        3.9307942346617701        13.675100231332999     
   2.2512636061079299        8.2565987767035001        13.096416883183400     
   1.4194661501213399        7.8516774699244198        13.342147564073199     
   2.0014397899475300        9.0339066339916307        12.596804637659799     
   22.290137308912300        8.3640516153096094        12.898683300862499     
   21.742179015497900        7.7177471865457701        12.453414691999701     
   21.778896483035300        8.6252473258019400        13.664608531401900     
   2.1380292344293101        8.3198671140543894        17.410164972457700     
   1.9045335513540600        9.1372393310628404        17.850181182213500     
   2.6167530634141500        8.5962584455859599        16.628715570758299     
   24.625312705261599        4.4158651522484398        17.496132553815201     
   24.537439783596600        5.3037606606127996        17.149503420786200     
   25.466364201270100        4.4187955937585599        17.953139811497699     
   22.114905677600401        8.4587100776079396        17.505105723706802     
   22.865136427240600        7.9495930324282700        17.198209166864100     
   21.659680077419399        8.7213474935511393        16.705091298407801     
   3.9425831704398799        2.0408218174603698        17.630253580188800     
   4.7066094986675902        2.4978415382822101        17.278645012951301     
   4.3058885518562100        1.2817656069395900        18.086405648148300     
   6.1392498632771604        6.3077727599310700        17.587141618229399     
   5.3567308698754896        6.4571026025634097        18.117798252094602     
   6.1405460518026800        7.0257628442689697        16.954116817224200     
   8.3317517093944193        2.2649682884195301        17.571173556125501     
   8.7819727171702109        1.9907578996016400        16.772210761734101     
   8.9614318148269607        2.8292581960554899        18.019851285640399     
 -2.79898072254100606E-002   7.1018595552992299        13.829069193889399     
 -9.22747939063043275E-003   6.1774395444592196        13.581425379888801     
 -0.82621500447448304        7.4423554462344104        13.425174501261500     
   5.9865947137450197        3.7128197700838701        13.855535966125901     
   5.9391615600145702        3.7439557787243301        14.811052834052900     
   5.2548089689400204        3.1525433990759599        13.597056079499501     
   5.9502857016070099        3.7599114774436702        16.622872540971599     
   6.7864717306221500        3.3991707704566601        16.917645177426198     
   5.9486729594404197        4.6597200775549199        16.949328850802701     
 -0.18017545444565899        7.0242050480219396        16.433988061335199     
  0.62672819348651998        7.4156887574449204        16.768471017866901     
 -0.10506612631232901        7.0956326396823703        15.482416451850700     
   7.3998272773831104      -8.86626409425982365E-002   11.531924634006099     
   7.6978045393456602       0.67872384180570799        12.020350040233600     
   7.7257272917913600      -0.83484698377682398        12.035144215419400     
   20.907813963408898        6.3653232976585503        11.481867938208699     
   20.883798254801501        6.4145135673517801        10.526234429426401     
   21.345279124189901        5.5346453356517902        11.668496436941300     
   2.2065702056150300        4.2129586680100601        11.540998694038800     
   2.2898291377728102        3.8791375806291000        10.647766769040700     
   2.7828863210822399        4.9767943156784202        11.566428566312201     
   4.8189798850123600      -0.12669735369206300        11.607842710038300     
   4.5409327691319001       0.64509446002371695        12.101055683946999     
   5.7753613675916204      -9.23197761555342861E-002   11.627450921129800     
   22.083048655164301        3.8938903846819000        11.540093138220900     
   22.258424704330700        3.9129346797988598        10.599289016098600     
   22.943192870059100        3.9989193435772399        11.946728954863200     
   3.7008307460851801        6.5765580810363096        11.413775465488500     
   3.0855801525866098        7.0623454780108501        11.963056042370900     
   4.5112059422093802        6.5545458359977999        11.922734542993700     
   20.782246410301301        6.4757360683410701        18.945640269613801     
   21.238133912307099        7.1439411039483200        18.433878160910901     
   21.333041710192902        5.6967401298232199        18.868040621482901     
   7.4867849611970900      -8.78203402419454188E-002   18.970248281792301     
   7.5312694616884803      -0.28775726794901202        19.905276727431900     
   7.9833085309162302       0.72493688595291805        18.874739769180099     
   2.4716067819962300        4.0138729428383204        18.986066438639501     
   2.9882301495834800        3.3881092629529501        18.478373664415599     
   3.0191525966058101        4.7977997159088996        19.029474218664301     
   22.203634387363500        4.0408951664642299        18.941964708651401     
   22.961680989044702        4.1619605983116204        18.370177728307201     
   21.695787776222200        3.3458918401810398        18.523283402634998     
   4.7565349264369701      -0.12741719260739201        19.005402541292799     
   4.6773809949532703      -0.12877028422671799        19.959323221576899     
   5.6998331775708904      -0.12611648427352101        18.842864676272001     
   3.7173726126628002        6.4424545523296999        19.147477631208201     
   3.1364302185983299        7.0566468457041402        18.698583878146199     
   3.6028742250284198        6.6395967734109300        20.077131816320300     
   6.1158160514476201        7.8641713985163104        15.002418428405900     
   5.3554113209117302        8.4444941377568608        15.037660506933900     
   6.8692471472102703        8.4527326057913807        15.048992339867301     
   2.7455153096017000        1.4231794767037400        15.193731872244401     
   3.2552114937968799        1.6378653069622899        15.974981918070400     
   2.6743506788494500       0.46874130348736298        15.208401870107000     
   9.9121846930302802        1.5018459177558801        15.390552961054700     
   9.4311445859886192        1.7500579205376501        14.601108183320100     
   9.7907715536082200       0.55475754306636205        15.457741502515599     
  0.12481506023836700        2.8267246964501598        15.127510949665400     
  0.18975765803052599        3.3824125081863099        15.904186786086100     
  0.89563780732936504        2.2609697994622602        15.172070225930799     
   3.5628141608878900        9.1394485962693999        15.171316206923599     
   3.0678398733520500        8.8853343012023007        14.392433533011200     
   3.5677013635503800        10.096418875045700        15.150924032222299     
   20.758368310103300        9.2094150176331997        15.179098938862399     
   19.836966982721101        9.4664969269413799        15.213162494238400     
   21.239709714747999        10.035868688026900        15.218042781346201     
   18.469081332050600        6.2068818927605598        12.910063742027999     
   19.261698217381401        6.4322713224183401        12.423042266026000     
   18.612984123844100        5.3057120893118599        13.198883429491101     
   16.037072215665699        2.2880906570689601        13.169473577065901     
   15.478526432098000        2.8069624866009701        12.590655408573600     
   16.438366592630501        1.6362425540664600        12.594766074393000     
   20.698920657588399        2.1654093909464098        12.993340121607099     
   21.234391629145399        2.8166827809304400        12.540189318762801     
   21.218860171425000        1.9170140927026500        13.757666307055301     
   12.306341364138399        4.3674181741147704        13.091859089664100     
   12.197010530892500        5.2346397983261204        13.481994019402499     
   12.380273427660001        3.7751915911162799        13.840212992823099     
   14.548855157760499        8.3556784322255808        13.071548078349300     
   13.833339871227800        7.7711792975909804        13.321808894997400     
   15.143603233677799        7.8033747872407204        12.564135770724500     
   10.031029103484601        8.4157593230485794        13.097023950587401     
   9.5581575239571706        7.8272375017351399        12.508579921717001     
   10.277815922651699        9.1586191861758994        12.546127109391300     
   14.484305004203700        8.3906307340000303        17.553890568525201     
   14.902143600779500        7.7047264629168302        18.074638183134599     
   14.345355136367100        9.1092340008846904        18.170765044452800     
   12.227082178373699        4.5360629535287202        17.412586964288700     
   12.355056837035800        5.4229029698506199        17.075883664348702     
   12.149181408172700        3.9910023865730500        16.629597635911800     
   9.9843609240462499        8.5349344347819898        17.507929245866102     
   9.4703292668652406        7.9072368712366501        18.015865328592099     
   10.216604382698501        9.2189311827010805        18.135976429403598     
   16.083501074568300        2.1965489496076400        17.480411317824800     
   16.869128995804701        2.6470709009899500        17.170491036629102     
   16.415572444156101        1.4391292961168300        17.962361433506800     
   18.370233817791000        6.2014076560211402        17.572927201483299     
   19.239851099528600        6.3692497997032103        17.936006584135999     
   18.334063877951099        6.7359962402858802        16.779744611516900     
   20.664458446375100        2.1967097017159700        17.574707467307800     
   19.878255330038002        2.5591312687633798        17.166336180853001     
   21.220585905148301        1.9403314929923801        16.839027982960101     
   12.369043400341701        7.1010555120299603        13.837006486741300     
   11.605946961870600        7.6244314792875798        13.592071265734100     
   12.363184529114299        7.1015540641725003        14.794188426120501     
   18.514092790242501        3.4860952576642501        13.825407435332600     
   17.701979879842298        3.0926812568117001        13.506142835518499     
   19.205734820918700        2.9190741753388698        13.484305934895101     
   18.459512476185200        3.5793798404624999        16.508233596081400     
   18.514146360422700        4.5122701826535101        16.715507781979799     
   18.452614686030898        3.5460841017401599        15.551637728290800     
   12.226370023836200        7.0998102423665799        16.616548401258701     
   12.944328811782700        7.6357849901382897        16.953443174980901     
   11.433975475487999        7.5344916939992199        16.931817739055301     
   19.774001382597199      -0.11279853188310200        11.584267020993300     
   20.083626151324001       0.64420037312322598        12.081576784028400     
   20.102199164619101      -0.86954146069416105        12.069919361222700     
   8.5169613075679695        6.5400323016108199        11.606615287229600     
   7.6970083124895901        6.4355193915086604        12.089301497395100     
   8.9375485550729294        5.6818026031761502        11.659340916300600     
   14.700549656497699        3.9500183415154200        11.469822991362800     
   13.881799228394399        4.0747680842343401        11.949736606685700     
   15.151357111540500        4.7913618211514404        11.541556022469701     
   16.961681235853199       0.20103786598670001        11.504148120754699     
   17.917047495828399       0.15738531979241899        11.544168172125900     
   16.665228722158400      -0.53918952724787195        12.033686743925101     
   9.9107837538694596        3.9404678414436001        11.705740085286500     
   10.131953983871000        3.9560597333953398        10.774572827342700     
   10.755070901534300        3.9917223388958800        12.153829394218100     
   16.102082810175400        6.5056862023702200        11.688224901494900     
   16.258917028018701        6.4940496609868301        10.744032411047000     
   16.976077063358101        6.4719803393462998        12.077107660435599     
   8.5280103922639405        6.4441404811826803        18.935875450152299     
   8.3127731794405797        6.4468050162065396        19.868558505894800     
   7.6792117139676099        6.4268834205811398        18.493750086050898     
   19.798679365120101      -0.10539299721529900        18.931705918228499     
   20.230161714164598       0.65133977673696097        18.534956209609099     
   19.893081260890700       3.14439781605554067E-002   19.874359494175099     
   14.553556145750999        3.9456990252500099        18.961170150043898     
   13.687430400540400        4.0542031333923703        18.568378994339501     
   15.011283043891201        3.3467806714284900        18.371242415338500     
   9.8683207449725199        4.0978183166535196        18.979795620707300     
   10.667397817504000        4.2560760158406801        18.477140497583701     
   9.4412739502296894        4.9531626677758300        19.027218358956301     
   16.993708695173801      -4.32669091526838301E-013   18.944065750389999     
   16.852088163323501      -0.15585828888978201        19.877812856807399     
   17.938118992149501      -0.10020085872876699        18.824563370177898     
   15.790531147949499        6.4776815715949896        18.855277540515701     
   16.630084235699400        6.3605286147878504        18.410690498912999     
   15.326899523975900        5.6522684221872002        18.713959848642801     
   18.270215923906800        7.6953792298085801        15.331656825098101     
   18.243070166828399        7.0976690493394399        14.584503903644800     
   17.502695274033599        8.2560353343852295        15.218481631618300     
   14.706973483337400        1.3164996113616800        15.154652001860899     
   15.155567707920801        1.5897167307161499        15.954869139494200     
   15.239247355138700        1.6777691148488700        14.445849694268800     
   22.049879954787801        1.3169890618650999        15.243018733648000     
   21.588507216681698       0.48124597679543302        15.313022535621400     
   22.977434031526698        1.0812319900321501        15.260161598220099     
   12.328215710001000        2.7767279592913301        15.197229883410900     
   11.552321468072201        2.2184937905500401        15.248166885594401     
   13.065386147423499        2.1681981924806601        15.247260964707801     
   15.977647846839600        9.2957647641855807        15.328314243535900     
   15.505247170823701        9.0162747144867801        14.544123735165000     
   15.442422046965101        8.9798054953845892        16.056280536441999     
   8.4739229188079097        9.3527892760836302        15.185923452785399     
   8.9908131729677105        9.1242308677871105        14.413383900949000     
   9.0249807591681002        9.1001921409585709        15.926708025994200     
  1.30405103883167901E-002   16.922715432421299        13.052551837804099     
 -1.20541103850194098E-003   15.973582703209800        13.175742568227101     
 -0.77162498812277103        17.109629845967000        12.537192839187400     
   22.199512996914201        12.885801549258000        12.896036358989800     
   21.785860166576601        13.534486087102501        12.326535220874099     
   22.360666235467100        12.133953029350000        12.325961559673001     
   2.2493909363675302        12.821769325874300        13.092806389072001     
   2.7896115864577098        12.574609436787100        13.843343182602201     
   2.7837407054181802        13.452091927503799        12.609696068140600     
   18.481244060496600        15.123064646009500        13.061613257010000     
   17.646269200910002        14.965520746679299        12.620899354753501     
   18.457507306445201        14.554296966360299        13.831140211114700     
   20.643197403981500        19.013462114156599        13.072243041832200     
   19.943779592653900        18.519347159884099        13.499907603331099     
   21.087375981320601        19.468739670517198        13.787546878049600     
   16.168646255403299        18.972313692388401        12.987351701775699     
   15.525616250957800        19.153106781793799        13.672959543188099     
   15.752479731050601        18.308957310789999        12.436901363415600     
   20.608573320532201        18.967264559958799        17.494037072250400     
   20.343202071037101        19.701947497379098        18.047255764455301     
   19.785083431645599        18.563891757753300        17.219470822790701     
   18.363139537894600        15.096126945801400        17.505654531231400     
   18.541976145741302        15.963252341576601        17.141864955108701     
   19.167812894232100        14.858555812130700        17.966406727153501     
   16.008059833340500        19.073002480548102        17.358635692513001     
   16.191076715850102        19.811531258599000        17.939421285229500     
   15.605178105922599        18.415667320379299        17.925935120433302     
   22.280571314052899        12.830583935582700        17.581946592394100     
   21.772992467763199        13.424469759819500        18.135024509662401     
   21.685831330945302        12.600171279210500        16.868205602764998     
 -9.24884156995152418E-002   16.897991695972099        17.344545495633898     
 -0.18860972116829100        16.035111569600101        16.941518918164000     
 -2.58433078724805004E-002   17.502158936396501        16.605105021220499     
   2.2974752812671499        12.800751020945100        17.552116998672300     
   1.5476643586193000        13.326073134922501        17.272738945052598     
   2.8427842706882398        13.407865495130000        18.052398880506800     
   18.437832904254101        17.700101270904799        13.894502136963800     
   18.413718341028499        16.788767385002298        13.602747314816400     
   17.640362207087399        18.088454135586598        13.534704444289300     
 -1.31344723608609205E-002   14.221113292863000        13.852938689069800     
 -0.82495891906021102        13.886589217810000        13.471800195932101     
  0.65480661388596295        13.588764556636800        13.587945064435900     
 -2.79470846889166985E-002   14.250870332613200        16.623216492037699     
 -0.70244657552846301        13.622931609634101        16.882012235898699     
 -4.12229832011623276E-002   14.236541930900300        15.666215819403099     
   18.381011802635602        17.694990183979300        16.655511580029600     
   17.577958307991800        18.122188300516701        16.953569785699901     
   18.341178206710499        17.748599295800599        15.700644475262999     
   1.3437368234718801        10.568418316916400        11.648853980395799     
   1.5995863400538100        11.357765309119300        12.126037583178899     
  0.38961524305994699        10.542921394450699        11.721198688129100     
   14.633695298841699        17.157509683634601        11.511742004780301     
   14.518454572754500        17.309962994385401        10.573813754277101     
   15.202412126389500        16.389214887602002        11.561902910405401     
   20.902658694467700        14.805645583621599        11.528869602620899     
   20.072596283759900        14.856059885812099        12.002880818168100     
   21.275061704082798        15.684316871315000        11.602927732579801     
   23.142349085864499        10.587183941081600        11.458784821092600     
   23.123457857841899        10.534490243076000        10.503223030471800     
   22.826374838868599        9.7327279627859493        11.752548495480900     
   16.143523781401200        15.017590128400000        11.647196676077201     
   16.001413034125498        14.790632331168201        10.728215428290101     
   15.695769755342200        14.327636365491800        12.136800574342701     
   22.207356901017700        17.148210932750800        11.562231634707301     
   22.173589623906398        17.205729362795399        10.607358218383601     
   21.780036250422999        17.948998943967901        11.866151793081800     
   14.664035531456800        17.108529094089199        18.873052660856999     
   15.079291016103200        16.246644586820800        18.842233533649701     
   13.852515136786501        17.001811642549900        18.376788744607701     
   1.5476299576566701        10.644428935111801        18.898592917675199     
   1.9523711270403801        11.385943148912400        18.448511706628100     
  0.61104616420725599        10.741331611139000        18.726393878111502     
   20.653660167068200        14.839758998185300        18.999879225833102     
   20.542399197424999        14.693037948906300        19.939201199563399     
   21.227148126639900        15.604000809974400        18.942626685805500     
   16.017411937744900        14.618116572823800        18.931930730673599     
   16.820102698829899        14.725668672849901        18.421683802364502     
   15.510705824709900        13.966259265117900        18.447613886651599     
   23.337310871614200        10.637289476096599        18.838423246971200     
   22.990011201086300        9.8712340344020095        18.381505487301698     
   23.062775879350198        11.381316103884700        18.302431870953900     
   22.171942439520102        17.255747892651598        18.969918916310800     
   21.637976813781300        17.856540793638999        18.450149312878299     
   23.026438612472500        17.259674874137101        18.538580639286799     
  6.17206445972328377E-002   18.509209477827799        15.260752618866601     
  0.17616305794639200        18.007268677454999        14.453789046610799     
  0.89836621905627201        18.957226408192401        15.385399531563200     
   20.868909553704199        11.919395499897400        15.238778168025499     
   21.271793247852301        12.269074162773199        14.444019461424000     
   20.005084504814999        12.330506881198801        15.270802488098999     
   3.6937622696558399        12.066342247202600        15.303069629895200     
   3.2458092261559299        12.412517940082999        16.074906594854699     
   4.5740096179187404        12.439562849144300        15.348926234243599     
   18.374292990007699        13.523691758808800        15.275467176876200     
   18.165500732165100        13.995388190352999        16.081779839268101     
   17.638061472351399        12.924940993937600        15.150197412065999     
   21.861007894226098        19.780310456477800        15.383284545639800     
   21.485119312080499        19.418979853957001        16.186017259246601     
   22.697819141566800        19.326184648057801        15.284549919237000     
   14.561573616343001        19.793401250777102        15.153405576937599     
   14.645166162254400        20.746733555606500        15.133364548099800     
   14.971316916860200        19.533859983852199        15.978621063004301     
   12.342114714881200        16.887807466385301        13.044263666865600     
   13.099939306832500        16.922083198190901        12.460518086973901     
   11.599455071292599        17.121384980634499        12.487370464696600     
   9.9610614778781095        12.768606484487799        13.005072181340500     
   9.4164462374230702        13.410678607131100        12.549693801102300     
   9.4440261457781496        12.514405101120699        13.769459492887799     
   14.619665761292399        12.908999536153900        13.069947640860800     
   13.766494208132700        13.260892496940500        13.323919066473700     
   14.414175012028799        12.120612964656299        12.567501618039101     
   6.1374489600066298        14.968451162147000        12.968899401702201     
   5.3748218578401499        14.797268503271299        12.416334255912600     
   6.0583251951235804        14.341666332821600        13.688004434057101     
   8.2599892946798104        18.972904477981199        12.996584016994399     
   7.4638702653705504        18.501174553629301        13.241323081392901     
   8.6657547725691302        19.208000835203400        13.831039480020500     
   3.8196975684034702        18.938617276623201        12.994351433933399     
   4.0766409078149000        19.687158775478700        12.455930051721200     
   4.6462282074946701        18.516335769582799        13.228354150702200     
   8.4286170673606904        19.008021709968400        17.640784085368399     
   7.6485226449571604        18.564664700672601        17.307438777252099     
   8.0891864037510999        19.768135356127100        18.113273142940098     
   6.1763929100644299        14.973430896243601        17.398050722998001     
   6.9095723791285000        14.850153247388601        18.000945678554601     
   5.3973390575529496        14.825747648157099        17.934237810796201     
   3.7667960163730601        18.890763611097501        17.439866612353899     
   4.0297956238528601        19.579549774457000        18.050306345357800     
   3.2430883406590798        18.288697905895301        17.968524343799999     
   10.043177672493300        12.768562992407499        17.484346710226799     
   9.5387286809746996        13.406373946706699        17.989282588860700     
   10.264635278073900        12.083869409417400        18.115522649520098     
   12.328551469595000        16.724109447480298        17.540064444277100     
   12.299577674967500        15.817877040036000        17.233249870107699     
   12.346994809146700        17.248126994905899        16.739254046482301     
